# .PCD v0.7 - Point Cloud Data file format
VERSION 0.7
FIELDS x y z
SIZE 4 4 4
TYPE F F F
COUNT 1 1 1
WIDTH 1563
HEIGHT 1
VIEWPOINT 0 0 0 1 0 0 0
POINTS 1563
DATA ascii
1.5937315 0.45365593 1.0422283
1.5905577 0.6864537 1.0452448
1.5901282 0.87992704 1.040071
1.5935707 0.92984575 1.0442181
1.6323583 1.2067037 1.0434514
1.6513377 1.2827158 1.0439448
1.729129 1.730647 1.049964
1.7168354 1.8665395 1.042644
1.6689417 2.1010761 1.0461209
1.6225189 -1.4285079 1.0513191
1.6041108 -1.1328914 1.0594584
1.5705414 -0.91403013 1.0592245
1.5605037 -0.85262704 1.0599355
1.5410249 -0.63016039 1.053045
1.541083 -0.62831491 1.0527588
1.5379516 -0.57617426 1.0556567
1.5388811 -0.50377566 1.0539379
1.5437093 -0.39581704 1.0528786
1.5476907 -0.31744307 1.0576968
1.5784992 0.006206878 1.0517414
1.5946032 0.31225052 1.0505677
1.5954775 0.32886687 1.0545462
1.5960523 0.37315232 1.053983
1.5944296 0.67321539 1.0582677
1.5930396 0.73226464 1.0557436
1.5958035 0.88709408 1.0596597
1.6337248 1.2089976 1.0510743
1.6808944 1.3905199 1.0526599
1.6871977 1.4144944 1.0547386
1.710223 1.5110272 1.0519651
1.7251685 1.7888969 1.0526344
1.7073385 1.9154177 1.0567688
1.7038484 1.9330037 1.0596005
1.6782219 2.0556588 1.0580758
1.6439829 2.2055726 1.0538555
1.6340938 2.2507722 1.0520264
1.5942283 2.468318 1.0547687
1.5940078 -1.0804195 1.0657487
1.5847732 -1.0199337 1.0653023
1.5786654 -0.96636385 1.0601065
1.5459143 -0.76278621 1.0643765
1.5349669 -0.43479839 1.069419
1.5504526 -0.27478522 1.0611911
1.5534624 -0.23422588 1.064485
1.58147 0.049859814 1.0636133
1.5906664 0.17792463 1.0644909
1.5990114 0.44315848 1.0674707
1.5968645 0.55703562 1.0608037
1.5955462 0.69740301 1.0633624
1.5985941 0.89756733 1.068355
1.6011528 0.96735156 1.0642953
1.6105335 1.0552771 1.0694048
1.6250546 1.1548153 1.06797
1.6558051 1.2950263 1.0664345
1.6735574 1.3632641 1.067584
1.7278345 1.684999 1.068053
1.7268795 1.7419583 1.0672355
1.6974175 1.9648244 1.0619085
1.6417873 2.2122929 1.0609782
1.6171985 -1.3832105 1.0714741
1.6115319 -1.2743155 1.075557
1.6098382 -1.2588675 1.0771401
1.6086155 -1.2247744 1.0727065
1.5449492 -0.80698729 1.0763456
1.5313354 -0.50116324 1.0710226
1.5302981 -0.46356055 1.0770952
1.53803 -0.36442295 1.0748069
1.5381726 -0.34744614 1.0789148
1.58033 0.043204766 1.0776974
1.6006144 0.381677 1.0797527
1.6006697 0.40456289 1.077651
1.5985348 0.84106129 1.073478
1.600387 0.880117 1.076829
1.6162199 1.0884634 1.0766814
1.6182507 1.1089995 1.0724264
1.6383998 1.2184237 1.0737392
1.6499265 1.2683409 1.0767404
1.7197371 1.5764014 1.0712069
1.7267153 1.6939458 1.0798554
1.6145669 -1.4951274 1.0800804
1.6147605 -1.4413079 1.0821692
1.6150796 -1.4033138 1.0800819
1.5983487 -1.1853631 1.0879208
1.5823665 -1.070724 1.0869834
1.5791569 -1.041376 1.0836434
1.5625968 -0.94667768 1.0842911
1.5518259 -0.87014115 1.080732
1.5435758 -0.82676274 1.0838466
1.5290399 -0.70006984 1.0844076
1.5276128 -0.69229317 1.0860295
1.5265322 -0.64570081 1.082773
1.5279672 -0.45248723 1.0842671
1.530594 -0.42872599 1.0815408
1.579842 0.041263141 1.0856179
1.5885613 0.13531488 1.0891086
1.5932453 0.19745204 1.0871773
1.5955372 0.23129566 1.088068
1.6014276 0.40558195 1.0816458
1.6028514 0.42731506 1.0872457
1.6027265 0.47100896 1.0843434
1.6015878 0.56886435 1.0801908
1.6035515 0.60260558 1.0886314
1.601634 0.64469415 1.0830895
1.6007113 0.78641301 1.0828062
1.6127717 1.0407108 1.0863719
1.6436327 1.2360065 1.0871748
1.6629754 1.3199985 1.0860437
1.7255405 1.6658683 1.087061
1.7263359 1.6841825 1.082878
1.7257488 1.7000096 1.0893486
1.7208986 1.796918 1.0865514
1.7210957 1.8003749 1.0812844
1.6486229 2.1720088 1.0857911
1.6301883 2.2533293 1.088465
1.5948043 2.4498806 1.0821066
1.6104369 -1.5132425 1.0983644
1.5976864 -1.2143027 1.0980276
1.5977777 -1.2002079 1.0937166
1.5938009 -1.1603899 1.0912693
1.5900056 -1.1567936 1.0989767
1.5719519 -1.0326545 1.0952529
1.5493993 -0.90991914 1.0973606
1.5183311 -0.64488155 1.0990444
1.5180473 -0.59743035 1.0972419
1.5681903 -0.053922582 1.0979259
1.5958024 0.22971359 1.0922933
1.601437 0.3178758 1.0986513
1.6020133 0.33569336 1.0973116
1.6046331 0.54797065 1.0919052
1.6060613 0.55101669 1.0977166
1.6044202 0.68601131 1.094484
1.6053679 0.73279744 1.0988554
1.605684 0.88628244 1.0952263
1.6746429 1.3659298 1.099892
1.6489273 2.168844 1.0902584
1.595808 2.4384587 1.0912644
1.608802 -1.4952573 1.1073564
1.6087563 -1.4155781 1.1048225
1.6074556 -1.3723791 1.1047063
1.5756186 -1.0771754 1.1034687
1.5740291 -1.0633804 1.101892
1.5343374 -0.85582727 1.1091568
1.5167383 -0.65453553 1.1029818
1.5140134 -0.5230366 1.1087667
1.5344696 -0.31212568 1.1023356
1.5446471 -0.2234955 1.1060832
1.5524528 -0.17328344 1.1007283
1.5556271 -0.14116609 1.1067319
1.5598476 -0.11403815 1.1031148
1.5718306 -0.021540141 1.1012833
1.5836433 0.08256451 1.103826
1.5879675 0.12439943 1.1082885
1.6045774 0.36873019 1.1052711
1.6073948 0.48797885 1.1049629
1.6076545 0.59815091 1.1043971
1.6075419 0.65233177 1.1049465
1.6085494 0.69196385 1.1093751
1.6065896 0.77190745 1.1033241
1.6084064 0.85281938 1.1074457
1.6225358 1.0985833 1.1015778
1.6236025 1.1026807 1.1043128
1.6902102 1.431706 1.1031177
1.6987147 1.470228 1.102335
1.7011558 1.4831587 1.108524
1.724095 1.7206892 1.1021481
1.6833507 2.0116823 1.103909
1.6714977 2.0648468 1.1045619
1.6446136 2.1807137 1.1071976
1.6399237 2.2027116 1.1040119
1.6328701 2.2329705 1.1075342
1.6295471 2.2477164 1.1087369
1.6183563 2.3051784 1.10005
1.599269 2.4066353 1.1095804
1.5924875 -1.2212466 1.113467
1.572107 -1.088468 1.1151145
1.559713 -1.0277301 1.1184626
1.5516714 -0.96922976 1.1130764
1.5201504 -0.76498348 1.1129576
1.5187497 -0.74844128 1.1123061
1.5136955 -0.70399719 1.1146673
1.5117338 -0.69334793 1.1170521
1.5101384 -0.55511975 1.1150575
1.5159931 -0.47175661 1.1109284
1.5197961 -0.41581362 1.1129496
1.5248727 -0.37275189 1.1109252
1.5578454 -0.11366343 1.1165313
1.5980934 0.23002331 1.1188046
1.6094528 0.46397421 1.1163098
1.6085635 0.47353503 1.1112261
1.6102972 0.53704107 1.1155232
1.6099272 0.57455057 1.1132158
1.6092602 0.59180313 1.1105031
1.6115191 0.84055203 1.1190212
1.6113652 0.88974506 1.1151669
1.6119665 0.92282319 1.1136807
1.6319447 1.1471694 1.1167482
1.696921 1.4644856 1.1173204
1.7147471 1.5671589 1.1169198
1.7211268 1.6371733 1.1196358
1.7226367 1.6702801 1.1180078
1.6939914 1.9556988 1.1130452
1.6927843 1.9625096 1.111623
1.6220764 2.2820535 1.1111846
1.6189928 2.295089 1.1159358
1.6048833 -1.4517628 1.1237068
1.6003367 -1.3399355 1.1230108
1.5924667 -1.2438056 1.1205516
1.5677042 -1.07926 1.1212001
1.5337558 -0.9083451 1.1267664
1.5209192 -0.80289161 1.1202545
1.5036623 -0.65216535 1.129414
1.5315297 -0.27697739 1.1290842
1.5382125 -0.2336493 1.1274754
1.5437531 -0.1959255 1.1277628
1.5810825 0.063379243 1.1248243
1.6126701 0.83527434 1.1232201
1.621765 1.0543066 1.1200022
1.6708614 1.3468629 1.1239041
1.7176006 1.5992942 1.1260358
1.6902455 1.968598 1.1245688
1.6774284 2.0275819 1.1285501
1.5895509 2.46316 1.1241921
1.5821314 2.5135691 1.1293801
1.60223 -1.4588966 1.1356803
1.5948516 -1.3226701 1.1364017
1.5001504 -0.62656087 1.1355587
1.5250107 -0.3125127 1.1343937
1.5376754 -0.21889517 1.1399249
1.5555502 -0.11191893 1.1338956
1.569028 -0.023993665 1.1307023
1.5980489 0.2151383 1.1341119
1.6124002 0.44521064 1.1330824
1.6150298 0.62919605 1.1325448
1.6154213 0.71340531 1.134192
1.6190114 0.96941257 1.1327357
1.6461173 1.2199411 1.1334606
1.6652457 1.3185461 1.1345446
1.671162 1.3455834 1.1383379
1.7118016 1.5540487 1.1323748
1.7149006 1.5825318 1.1383286
1.721313 1.7093639 1.1322086
1.7146491 1.809558 1.1339015
1.707304 1.8676066 1.1322833
1.699941 1.9103258 1.1367532
1.6329101 2.2204947 1.1372814
1.598621 -1.4318289 1.1473584
1.5945544 -1.3685136 1.1493864
1.5927151 -1.3275721 1.1446049
1.561682 -1.1116008 1.1472874
1.5613869 -1.1007195 1.1435338
1.5479431 -1.0295348 1.1435239
1.5418146 -1.0031291 1.1456348
1.5366316 -0.21975398 1.1439899
1.5551196 -0.10689384 1.1424817
1.5658627 -0.037460662 1.144143
1.5757675 0.029524729 1.1466659
1.5956728 0.18718879 1.140339
1.6139208 0.43712053 1.1423103
1.617901 0.55489779 1.1462789
1.6180421 0.79862612 1.143039
1.6183672 0.82821941 1.1435337
1.6183552 0.84173387 1.1429788
1.6206515 0.87098515 1.1497028
1.6276362 1.0605116 1.1434979
1.6317713 1.1106744 1.1400447
1.6597514 1.2869053 1.1458372
1.6673177 1.3263882 1.1420404
1.6810645 1.3913983 1.1434356
1.709542 1.5461496 1.1495031
1.7164469 1.6026341 1.1436559
1.7182443 1.6280904 1.1452177
1.718767 1.7530117 1.1404239
1.7176143 1.7646941 1.1441414
1.7057208 1.8675793 1.1476424
1.6273346 2.2408259 1.1499718
1.5783724 -1.2401832 1.1578197
1.5673704 -1.1616702 1.154711
1.5614178 -1.128286 1.1548591
1.542016 -1.0247809 1.1540464
1.5326446 -0.96671617 1.1500741
1.5230763 -0.9273501 1.1544648
1.5093766 -0.84769833 1.1549287
1.5042094 -0.81123781 1.1548839
1.4926819 -0.71918947 1.1589775
1.4917246 -0.66581583 1.1552681
1.4906082 -0.56242979 1.1590205
1.4938322 -0.55446297 1.1523132
1.4919797 -0.53341913 1.1594946
1.5175165 -0.32145771 1.1559619
1.5460844 -0.14664403 1.1582222
1.5629553 -0.050529286 1.1528858
1.5685368 -0.013003915 1.1589053
1.581795 0.073040992 1.1547536
1.5895557 0.12969817 1.1575866
1.6167821 0.43209526 1.1582544
1.6202912 0.67054564 1.1519448
1.6233578 0.95370686 1.151727
1.6280689 1.0313016 1.1545117
1.6301475 1.0604457 1.1544343
1.6425593 1.176029 1.1545299
1.6471074 1.2080798 1.1542299
1.6486398 1.2145001 1.1579587
1.7169968 1.7555714 1.1560743
1.7129704 1.8071929 1.1524316
1.67345 2.0329421 1.1566702
1.646628 2.150918 1.15815
1.6411158 2.1763716 1.155293
1.6230301 2.2595723 1.1535965
1.5754225 -1.2503232 1.1699523
1.5511599 -1.1060245 1.169023
1.5495661 -1.0891217 1.1651219
1.5421245 -1.0562543 1.1672316
1.535919 -1.0245492 1.1668947
1.5112799 -0.88102537 1.1617354
1.5043111 -0.8614378 1.1693016
1.4933704 -0.74240482 1.1613139
1.4857075 -0.65351528 1.167403
1.4922991 -0.51173842 1.1624126
1.5042099 -0.40247279 1.161615
1.5167227 -0.30737907 1.1667812
1.5471038 -0.13112511 1.1690599
1.5565784 -0.083025843 1.1614984
1.61208 0.34706816 1.1602657
1.6232364 0.60983658 1.1646689
1.6243604 0.69453704 1.1665516
1.6339566 1.0819594 1.16348
1.6635689 1.300154 1.1614547
1.6661986 1.3132643 1.1640536
1.7014902 1.8815889 1.1679014
1.6925346 1.9359361 1.1638181
1.6782103 2.0069313 1.1649584
1.6435223 2.1625266 1.1631138
1.5906556 2.4348848 1.1637411
1.5844151 2.4810753 1.1600673
1.5691751 -1.2322278 1.1798204
1.5537505 -1.1228279 1.1705152
1.4945945 -0.80167937 1.1716402
1.4865808 -0.72821951 1.1729876
1.4834591 -0.64082325 1.1719599
1.4828894 -0.63033837 1.1731467
1.499117 -0.39679474 1.1794652
1.5009657 -0.39237672 1.1756883
1.5233688 -0.25036076 1.1795239
1.5251415 -0.24424654 1.1766578
1.5412278 -0.15733446 1.175921
1.555155 -0.080300994 1.1776549
1.5712137 0.0089219054 1.1729112
1.6147238 0.35389331 1.1746689
1.6209849 0.4602471 1.1730238
1.6260474 0.58065003 1.177958
1.6273972 0.69730502 1.1776832
1.628829 0.9269796 1.1751362
1.6419942 1.1466501 1.1718802
1.6440092 1.1600946 1.1744436
1.6877459 1.4235452 1.1765306
1.7147011 1.611506 1.173543
1.7167519 1.7230539 1.1743498
1.7089279 1.8199946 1.1778144
1.6720511 2.0290115 1.1792237
1.6504025 2.1260962 1.1782418
1.6364306 2.1879127 1.1781119
1.6351396 2.193763 1.1780375
1.6185387 2.2704067 1.1794581
1.5956205 2.3963056 1.1761042
1.5923848 -1.4771876 1.1830761
1.579146 -1.3269473 1.1886725
1.5700331 -1.2463551 1.1835662
1.5624712 -1.2092758 1.1879522
1.5604689 -1.1881086 1.1834495
1.5376188 -1.0761206 1.1862251
1.4960568 -0.84443784 1.1806947
1.4898646 -0.82574075 1.1878592
1.4820715 -0.7673502 1.1895255
1.4793584 -0.64683139 1.1811491
1.479507 -0.59135973 1.1823725
1.4826536 -0.54230994 1.1808529
1.5051454 -0.33957228 1.1891112
1.5170918 -0.27627376 1.1862553
1.5317172 -0.20416322 1.1802851
1.5622951 -0.038417369 1.1825808
1.5709321 0.011106734 1.1846292
1.588546 0.11933673 1.1819733
1.5939659 0.15532456 1.1881585
1.5993406 0.19592704 1.1837524
1.6132711 0.31935394 1.1853886
1.6184938 0.38699478 1.1829129
1.6247123 0.50290656 1.182081
1.6277161 0.54766905 1.1885005
1.6280704 0.64312315 1.1819402
1.6300458 0.8788085 1.1829443
1.6318451 0.94444305 1.1845546
1.6318774 0.97484064 1.1809494
1.6467888 1.1648506 1.1866969
1.6824011 1.3938993 1.1871469
1.7157389 1.6439008 1.1827865
1.7118909 1.7844504 1.1846162
1.6780648 1.9979601 1.1853464
1.6507623 2.1217365 1.1849997
1.6384032 2.1747873 1.1889271
1.6362679 2.186419 1.1836252
1.6120813 2.3018138 1.181116
1.6082902 2.3193748 1.186062
1.5658748 -1.2441559 1.1944
1.5355736 -1.0827403 1.1941037
1.4801676 -0.77297735 1.1947681
1.5429319 -0.12912475 1.1998029
1.5568366 -0.062851466 1.1921108
1.6025532 0.2153594 1.194248
1.6059921 0.24421869 1.192318
1.6217517 0.39905071 1.1970768
1.6281986 0.50031769 1.1989371
1.6317699 0.66098779 1.1953294
1.6311685 0.7340858 1.1907393
1.633527 0.75478709 1.1988748
1.632365 0.8800146 1.1912262
1.7145877 1.6404392 1.1941466
1.7101041 1.7871407 1.1997776
1.7087195 1.8080873 1.1925218
1.66128 2.0730388 1.1900885
1.6095374 2.3106258 1.1912379
1.5491619 -1.1637064 1.2008179
1.4846145 -0.84763241 1.2054472
1.4699831 -0.7305069 1.2088474
1.4681467 -0.61970139 1.2072707
1.4725101 -0.5585767 1.2033732
1.5208898 -0.23600851 1.2029688
1.591579 0.13547856 1.2080528
1.6271535 0.44697416 1.2084545
1.6324154 0.61430228 1.2008297
1.6340898 0.70540142 1.2023072
1.6338303 0.74692273 1.2001542
1.6353774 0.90576589 1.2008204
1.6370313 0.97184998 1.2011698
1.6457335 1.12411 1.2018336
1.686072 1.4129844 1.2018487
1.6952465 1.4683372 1.2049916
1.7106659 1.5889257 1.2027708
1.7125564 1.6151671 1.2033939
1.713371 1.6345356 1.2057953
1.6921135 1.9146272 1.2055676
1.6360285 2.1798565 1.2025706
1.5726784 -1.3293934 1.2113847
1.5615698 -1.2524785 1.2107786
1.5521755 -1.2028071 1.2125429
1.5019058 -0.96323073 1.213088
1.4630194 -0.67342412 1.2190076
1.4648968 -0.66545731 1.2143563
1.4653171 -0.61067837 1.2146697
1.482695 -0.43000865 1.2148134
1.5966808 0.16646858 1.2138662
1.6206017 0.35521033 1.2137829
1.6382508 0.69283491 1.2185911
1.6380723 0.7505852 1.2157327
1.6444958 1.0437109 1.2197304
1.6435311 1.0567676 1.2129066
1.7026569 1.5217361 1.2146664
1.7124449 1.6232265 1.2106661
1.7125071 1.7249333 1.2172554
1.7104039 1.7618966 1.2175373
1.7094843 1.7746198 1.2168497
1.6992637 1.8629342 1.2169302
1.6861625 1.9443569 1.2109897
1.6711723 2.0178494 1.2125161
1.6630623 2.0559926 1.2108502
1.6012546 2.3468585 1.2110713
1.5711212 -1.3568022 1.229109
1.5526636 -1.2289221 1.2245805
1.5298785 -1.1118617 1.2222602
1.5271012 -1.0953828 1.22035
1.4715232 -0.83498406 1.2297572
1.4614036 -0.65693223 1.2223887
1.478058 -0.43623629 1.2262291
1.5064428 -0.27836314 1.2292954
1.5143515 -0.24914078 1.2209518
1.5366195 -0.14161596 1.2248007
1.5370731 -0.13954154 1.2247536
1.5454485 -0.099052846 1.2276818
1.5675181 0.0044743833 1.2228899
1.57137 0.025310894 1.2295223
1.5887721 0.11682746 1.2273337
1.5947361 0.1522609 1.2239796
1.6089282 0.24553023 1.2237066
1.6099753 0.25213066 1.2256833
1.6271683 0.40958038 1.22418
1.629813 0.44693163 1.2229073
1.6340032 0.49681607 1.2277374
1.6380812 0.59468591 1.2263447
1.6386614 0.60983944 1.2268939
1.6399778 0.65045315 1.2280756
1.6412009 0.76125753 1.2269992
1.6418226 0.86049509 1.2264163
1.6466521 1.0488867 1.2277719
1.6560693 1.1920105 1.2232323
1.6731983 1.3233237 1.2294297
1.6887321 1.4274385 1.2201351
1.706373 1.5572926 1.2233768
1.7084746 1.5787899 1.2223171
1.7116321 1.6372221 1.2287784
1.7108867 1.7362044 1.2286869
1.7068371 1.7991247 1.2208692
1.7031143 1.8309389 1.2217944
1.6477362 2.1192915 1.2232901
1.6018854 2.3389971 1.2213435
1.5969529 2.3647549 1.2267153
1.5788941 2.4883988 1.2275467
1.5768886 2.5055957 1.2246003
1.5293854 -1.1292592 1.2328906
1.4977211 -0.99849772 1.2390659
1.4924558 -0.96128148 1.2331289
1.4719415 -0.86259103 1.2380581
1.4589058 -0.71554375 1.2317543
1.4564786 -0.63221979 1.2347589
1.4584069 -0.57661533 1.2362846
1.4636621 -0.53177947 1.2322801
1.4987446 -0.30293459 1.2398545
1.5102999 -0.25343072 1.2355025
1.5297692 -0.16530359 1.2354175
1.6027436 0.19801499 1.236131
1.6117263 0.25634077 1.2386545
1.6253147 0.36833966 1.2371657
1.626725 0.38983575 1.2324408
1.6417845 0.66462547 1.2340766
1.6483219 1.066283 1.2313901
1.6647273 1.2500279 1.2384182
1.7032398 1.5345089 1.23768
1.7109418 1.6253903 1.2314433
1.7115551 1.6699169 1.2380347
1.6964359 1.8678364 1.2377436
1.672358 2.001704 1.2351048
1.6463618 2.1193058 1.2383053
1.6244737 2.2204483 1.2332324
1.5958164 2.3684821 1.2336863
1.5758659 -1.4395736 1.2469188
1.5665975 -1.3539627 1.2444494
1.5653028 -1.3471067 1.2456603
1.5261534 -1.1368103 1.2454039
1.5259023 -1.1280636 1.2411256
1.5088304 -1.0679512 1.2497187
1.4708209 -0.88479733 1.2488524
1.4523613 -0.59625471 1.2488278
1.4686197 -0.46053308 1.2438954
1.4879164 -0.35060111 1.2441756
1.5838156 0.090175219 1.2478545
1.5991977 0.17490938 1.2412255
1.6240612 0.3418723 1.2493958
1.6274896 0.37721434 1.245629
1.6296962 0.39472499 1.2483071
1.6386857 0.52227557 1.2432827
1.6428454 0.60836172 1.2446618
1.6437567 0.61485589 1.247586
1.6463457 0.79847312 1.2449551
1.6474674 0.91036355 1.24543
1.6486896 0.99092883 1.2443676
1.6485008 1.007409 1.2417612
1.6503413 1.0007026 1.2499259
1.652645 1.0904646 1.2448789
1.6590024 1.1782768 1.2469041
1.6837739 1.3896873 1.244606
1.7010117 1.5171037 1.2443508
1.576968 -1.4731194 1.2563142
1.5709656 -1.4062548 1.2529768
1.5420079 -1.2326354 1.2578573
1.5380157 -1.2024713 1.2516574
1.508455 -1.0741858 1.2541493
1.4712673 -0.91206485 1.2590902
1.452677 -0.76112407 1.2532929
1.453981 -0.53433436 1.258576
1.5409685 -0.10590466 1.2514642
1.5461671 -0.081304267 1.2561066
1.5784951 0.064901598 1.2579457
1.6138021 0.26204833 1.2527243
1.6229876 0.32877854 1.2535387
1.6319551 0.41430137 1.250628
1.6393142 0.4830429 1.2592638
1.6422026 0.52906698 1.258414
1.6487331 0.78788948 1.2542684
1.6490499 0.81626749 1.2545244
1.6500922 0.8419224 1.2576547
1.6508268 0.87528193 1.2593719
1.6570034 1.1290168 1.2548085
1.6895 1.428179 1.2571186
1.7039887 1.5470816 1.2502254
1.7101535 1.6852717 1.2539052
1.7093133 1.7253387 1.251121
1.6922808 1.8834442 1.2551956
1.6649534 2.0262177 1.2583899
1.6539016 2.0800033 1.2515048
1.6314924 2.1788085 1.2569051
1.6271524 2.1995957 1.2547063
1.6056947 2.3033836 1.257356
1.5750933 2.5045819 1.2565205
1.5234746 -1.1652312 1.2696444
1.4961061 -1.0472492 1.2692357
1.4566694 -0.85374284 1.2698641
1.4538577 -0.82927966 1.2681682
1.4488543 -0.58053738 1.2608721
1.528267 -0.15028201 1.2678984
1.5319494 -0.13581367 1.2666608
1.5769341 0.058118235 1.2635764
1.6377262 0.44835156 1.2662657
1.6410407 0.48827499 1.2662812
1.6407174 0.49598226 1.2617548
1.6497257 0.67444944 1.2651209
1.6525937 0.8515262 1.2667675
1.6578466 1.0892515 1.2685119
1.6613451 1.1738727 1.2615204
1.6853623 1.3953947 1.2627007
1.7088084 1.6446292 1.267863
1.6997105 1.8244995 1.2639251
1.6897141 1.8955376 1.2613903
1.6575068 2.0585952 1.2631379
1.6289729 2.1876142 1.2639005
1.602504 2.3153412 1.2699097
1.5800494 2.4594231 1.2679733
1.5526681 -1.3221632 1.2774551
1.5313668 -1.2046156 1.2721347
1.4762597 -0.97814775 1.2793033
1.4549326 -0.85905343 1.2759473
1.4500889 -0.82601738 1.2761191
1.446257 -0.77095753 1.2705718
1.4407282 -0.59968877 1.2794608
1.4624926 -0.43770722 1.275565
1.5007782 -0.25842655 1.2752932
1.5042384 -0.24623743 1.2726848
1.5378613 -0.10651845 1.2758368
1.5469612 -0.069140919 1.2761626
1.5686574 0.023160556 1.2789898
1.5906974 0.12455543 1.2740571
1.6291837 0.35249174 1.2788458
1.6486504 0.57174593 1.2774241
1.6544522 0.74541676 1.2782859
1.6549962 0.87921375 1.2750442
1.657847 1.0101465 1.27925
1.6581184 1.0561062 1.2752502
1.6594384 1.1050667 1.2725352
1.6630572 1.1507372 1.2783929
1.6653919 1.2044982 1.2710345
1.7062384 1.5880569 1.2709225
1.6944708 1.856876 1.2734869
1.6828504 1.9292387 1.2719539
1.6805179 1.9388802 1.2779984
1.6757001 1.9646708 1.2771333
1.6135606 2.2549257 1.2788956
1.5864531 2.4087241 1.2768255
1.5814047 2.4472539 1.2718266
1.5676351 -1.4380521 1.2841915
1.5360804 -1.2519392 1.2883341
1.5324875 -1.2260457 1.2825683
1.530239 -1.2130362 1.2808658
1.4561299 -0.88131362 1.281829
1.5289859 -0.13830607 1.2836779
1.5484465 -0.060607612 1.2820745
1.5530499 -0.041716766 1.2827398
1.633141 0.38210115 1.280816
1.6440146 0.47809857 1.2870214
1.6485467 0.54194337 1.2853215
1.6517955 0.59433347 1.2866001
1.6578623 0.78945732 1.2892125
1.6569016 0.83717865 1.2836533
1.6573936 0.87591815 1.284321
1.6583951 0.92931199 1.2863587
1.657974 0.93390334 1.2845371
1.667613 1.1946555 1.2880528
1.7029082 1.5519792 1.2859298
1.7021295 1.7823088 1.2858481
1.6838701 1.9142092 1.2890011
1.6116889 2.2621062 1.2843546
1.6086899 2.2761984 1.2866869
1.6057172 2.2905014 1.2896568
1.5795408 2.4562042 1.2827791
1.5761253 2.4823928 1.2850503
1.4642237 -0.9582898 1.2984924
1.4491779 -0.86562777 1.2924526
1.4437318 -0.84715021 1.2989608
1.4349024 -0.7372002 1.2927669
1.433756 -0.68993264 1.291591
1.4347022 -0.64513993 1.2900866
1.4624013 -0.40394625 1.2988176
1.5333983 -0.11643503 1.2920179
1.5476571 -0.057544295 1.2990996
1.5644946 0.0096866833 1.2974143
1.5741693 0.049765062 1.2960835
1.5882185 0.11195427 1.2927637
1.6085974 0.21217245 1.2974982
1.6164298 0.2582328 1.2910346
1.6317043 0.35522127 1.2957834
1.6508934 0.55451244 1.2929046
1.6699781 1.2210767 1.2910411
1.6903315 1.423955 1.2999457
1.7051383 1.5979173 1.299999
1.7066197 1.6403509 1.2973109
1.7050509 1.7243946 1.2994509
1.6644803 2.0102265 1.2988927
1.6486576 2.0869868 1.2920611
1.6107379 2.2628798 1.2947078
1.5983597 2.3291619 1.2924891
1.5923249 2.3638289 1.2937214
1.58041 2.4437833 1.2950062
1.5793524 2.4513762 1.2961905
1.5675862 -1.4695019 1.3024468
1.5224831 -1.219422 1.3091737
1.4971701 -1.111635 1.307102
1.4744625 -1.0203028 1.3081632
1.433256 -0.77275807 1.3034325
1.4299328 -0.75642377 1.3088651
1.5225153 -0.15247935 1.3036301
1.5481863 -0.054636821 1.3012948
1.5873263 0.10802409 1.3027334
1.5937231 0.13709453 1.307416
1.6097116 0.21658133 1.3025831
1.6361705 0.38226086 1.3026537
1.6417619 0.43160203 1.3007953
1.6542264 0.56781363 1.3050585
1.6544664 0.5781073 1.303233
1.6644338 1.0334909 1.3045944
1.668889 1.1609011 1.3053832
1.6934071 1.4520793 1.3054036
1.7019548 1.5466359 1.3027167
1.7031465 1.5649563 1.3046074
1.7051913 1.7187541 1.3008773
1.6981134 1.8006858 1.3091941
1.6853347 1.8978008 1.3025204
1.662019 2.0199528 1.3038282
1.6598009 2.028723 1.3079183
1.6508453 2.0720997 1.3039501
1.6380725 2.1286817 1.3084894
1.6236526 2.1954207 1.3079904
1.6223696 2.201215 1.3086487
1.6163431 2.2298901 1.3087971
1.6124749 2.2504749 1.3043946
1.6072962 2.275707 1.3069048
1.6045499 2.2893615 1.3084003
1.5751398 2.4823205 1.3022372
1.5733089 2.496851 1.3042077
1.5471939 -1.3459373 1.3137826
1.4889152 -1.0867114 1.3128361
1.4361039 -0.83271587 1.3132716
1.427327 -0.63467538 1.3118174
1.4278783 -0.60217404 1.3158545
1.4291395 -0.58158416 1.3173302
1.4667649 -0.36564541 1.3141423
1.4877348 -0.2764467 1.3175361
1.5722065 0.04386292 1.3115922
1.6077074 0.20327605 1.313805
1.6140616 0.23616517 1.3133295
1.6286094 0.32029012 1.3138145
1.6491202 0.48313761 1.3133903
1.6539216 0.52904391 1.3178
1.6650366 0.87787062 1.3141433
1.6654731 0.93210101 1.3142438
1.667196 0.98858517 1.3190868
1.6947 1.4633375 1.316026
1.7014729 1.5469241 1.3185645
1.7036173 1.5802616 1.3138083
1.7044039 1.6015376 1.3168087
1.7054656 1.659266 1.3158017
1.6809484 1.9182802 1.3120142
1.6644258 2.0028312 1.3160143
1.5918285 2.3560824 1.3199829
1.5576802 -1.4311153 1.3279374
1.5486081 -1.3676995 1.3236035
1.4905128 -1.105737 1.3216873
1.4271116 -0.77876306 1.3211538
1.4370104 -0.50656867 1.3223617
1.448539 -0.44354352 1.3207436
1.4575396 -0.39653555 1.3234311
1.4787829 -0.30212304 1.3292199
1.5110372 -0.18246947 1.3270689
1.6026884 0.17724481 1.3222625
1.6309179 0.32491943 1.3289528
1.6353135 0.35710192 1.3235552
1.6665666 0.73042327 1.3290411
1.6683176 0.93995571 1.3254431
1.6685079 0.98254657 1.3247917
1.6675203 0.99605614 1.3201312
1.6709672 1.137062 1.3211677
1.674477 1.2025328 1.3246033
1.6851958 1.3564607 1.3234247
1.6875644 1.3810923 1.3258629
1.7041304 1.6040598 1.3236339
1.7047231 1.6443051 1.3268479
1.7048846 1.6667567 1.3232412
1.7042809 1.6903545 1.3249787
1.6915051 1.843645 1.3236972
1.6403145 2.1132472 1.3217981
1.6338443 2.1418297 1.3245888
1.6224663 2.1933892 1.3283106
1.6114231 2.2478986 1.3254365
1.5794103 2.4359429 1.3292056
1.5625536 -1.4761466 1.334509
1.5304072 -1.2899047 1.3357639
1.5196549 -1.2465292 1.3393505
1.4859023 -1.1088219 1.3373884
1.4762795 -1.071964 1.3380198
1.4635069 -1.0159284 1.3349434
1.4619443 -1.0077549 1.3338964
1.4318881 -0.85570776 1.3332541
1.4201647 -0.75364202 1.3351004
1.4303379 -0.52271563 1.3366895
1.4847798 -0.27534983 1.334106
1.4914088 -0.24825381 1.3371783
1.518859 -0.15189043 1.3310664
1.563104 0.013000235 1.3383257
1.584389 0.096217357 1.3309911
1.5858641 0.10265049 1.3389813
1.6040595 0.18204755 1.3336927
1.6523377 0.48054281 1.3341503
1.6591029 0.5456804 1.3384467
1.6648366 0.62695491 1.3395928
1.665465 0.64564288 1.3379886
1.6685786 0.787552 1.3324866
1.669943 0.84722841 1.3349689
1.6707997 0.96871066 1.3346928
1.6744426 1.1529912 1.3357462
1.6783147 1.2544122 1.3302534
1.679522 1.2659225 1.3334473
1.6896635 1.3984194 1.3351113
1.6800917 1.9126023 1.3314437
1.6632328 1.9991813 1.3372145
1.6394507 2.1133516 1.3315613
1.6199051 2.2028587 1.3356187
1.6136743 2.2320428 1.3383409
1.5773052 2.4483953 1.3378333
1.5404582 -1.3528914 1.3468572
1.5374476 -1.3395541 1.348695
1.5119185 -1.2157699 1.3406084
1.4753472 -1.0815867 1.3480127
1.4196761 -0.80672741 1.3495131
1.4216951 -0.805525 1.3433986
1.4193383 -0.7685349 1.3403165
1.4219415 -0.5563885 1.3495128
1.462255 -0.3579444 1.3410028
1.4686875 -0.3318499 1.3410615
1.4854513 -0.26373953 1.3466954
1.5112021 -0.17348589 1.342618
1.5504442 -0.032394864 1.3448623
1.5676466 0.031146042 1.3433913
1.5761969 0.0643216 1.3449996
1.610561 0.20975403 1.3489251
1.6402088 0.37176204 1.3466889
1.6528814 0.46817523 1.3459922
1.6578971 0.51829249 1.3450495
1.6670542 0.64479035 1.3456638
1.667737 0.66735274 1.3438532
1.6712271 0.72756338 1.3497113
1.6693616 0.73884279 1.3400395
1.6700878 0.73189986 1.3440863
1.6721624 0.83896756 1.3444105
1.6758952 1.1131886 1.3485788
1.6820158 1.2692541 1.3496943
1.7037101 1.6232433 1.3404154
1.7000813 1.7422227 1.3459805
1.6981745 1.7661922 1.3461592
1.66781 1.9736464 1.3428608
1.6217798 2.1918952 1.341233
1.6015047 2.2902377 1.3494383
1.5755448 2.4602454 1.3436232
1.5414643 -1.3692167 1.3561013
1.5054898 -1.2103108 1.3578838
1.4103438 -0.69958854 1.3586415
1.415426 -0.62216967 1.3500671
1.4188105 -0.56070107 1.3584126
1.4531364 -0.38659742 1.350837
1.5006654 -0.20335853 1.3562682
1.5235077 -0.12399906 1.3557653
1.5272294 -0.11150765 1.3546977
1.55504 -0.013289323 1.3539506
1.5653603 0.025354123 1.3589677
1.5865647 0.10615316 1.3528191
1.6276038 0.29137141 1.3582783
1.6422318 0.37977573 1.3536443
1.6456276 0.39886448 1.3584245
1.6545584 0.46857697 1.3567107
1.6557256 0.47751355 1.3575661
1.6706778 0.68200004 1.3545293
1.676708 0.98844707 1.3592312
1.6874356 1.3415207 1.3591368
1.6893539 1.3780183 1.353267
1.6918898 1.4123079 1.3545069
1.7008567 1.5507517 1.352528
1.7027684 1.6690983 1.3540213
1.6939398 1.7996854 1.3569082
1.6384979 2.1083465 1.3561792
1.6195652 2.1956871 1.3599288
1.5902658 2.350482 1.3593132
1.5719501 2.4851792 1.3561954
1.5702938 2.4986393 1.3590654
1.5693599 2.5087945 1.3553897
1.5545901 -1.4532117 1.3612819
1.5329294 -1.3404945 1.3687294
1.5113323 -1.240009 1.3632717
1.4427482 -0.97411036 1.3664044
1.4402518 -0.42914444 1.364359
1.5184283 -0.13591875 1.3690102
1.5230023 -0.12220256 1.3643534
1.5249124 -0.11426798 1.3677872
1.5414855 -0.056993436 1.3688557
1.5571655 -0.0035521844 1.3624363
1.600162 0.1618755 1.3626631
1.6041675 0.17892799 1.3646537
1.6124715 0.2164631 1.3604531
1.6172038 0.23674107 1.3681509
1.6611648 0.52316034 1.3614688
1.6687933 0.60364354 1.3667296
1.6766475 0.8202852 1.3643377
1.6770313 0.87261629 1.3634276
1.677981 0.90477252 1.3665282
1.6789325 1.0294008 1.3677479
1.6863772 1.3083732 1.3667626
1.6878673 1.3333204 1.3681062
1.6909993 1.3901244 1.3635471
1.6940033 1.7929449 1.3646115
1.6636183 1.9855195 1.3635163
1.6556668 2.0231128 1.3675761
1.6373663 2.1106048 1.3640894
1.5971248 2.3072503 1.3686855
1.5786374 2.424819 1.3692886
1.5725292 2.4753442 1.3670113
1.4979688 -1.1982033 1.3731492
1.4855275 -1.1549827 1.3767177
1.4758328 -1.1196991 1.3775996
1.4130197 -0.81460446 1.3719068
1.4215411 -0.50986892 1.3760002
1.43453 -0.44288784 1.3757617
1.4715163 -0.29225266 1.3792012
1.650658 0.41582149 1.3793231
1.6717159 0.61278147 1.3787855
1.6757869 0.72801065 1.370164
1.6811514 1.1270844 1.3729972
1.6831553 1.1799046 1.3778639
1.6841844 1.2349826 1.3742087
1.7005693 1.5533938 1.3757074
1.7005755 1.6902131 1.3777634
1.6802506 1.887609 1.3755214
1.6029729 2.2726839 1.377019
1.5977956 2.3018837 1.3732947
1.5548462 -1.4775954 1.3814412
1.5266715 -1.3239822 1.3805915
1.5169586 -1.2869743 1.3856783
1.4980623 -1.2128683 1.3865991
1.4668252 -1.0953184 1.385807
1.4555906 -1.0565662 1.3891656
1.4332705 -0.9584493 1.3847551
1.4301461 -0.94605041 1.3862824
1.4088651 -0.5841729 1.3840125
1.435059 -0.4344084 1.3813053
1.4588252 -0.33675921 1.3820933
1.6003982 0.16205893 1.381889
1.6270683 0.27996224 1.3833797
1.6427165 0.36192378 1.3855648
1.6533605 0.42880088 1.3860101
1.6650088 0.52748543 1.3824724
1.670082 0.57950222 1.3837874
1.6820608 0.99896067 1.3823564
1.6867417 1.2634302 1.3844328
1.6892463 1.3171127 1.3872502
1.6930391 1.3927308 1.3892456
1.6953213 1.7646748 1.3827593
1.6138783 2.2153294 1.3824496
1.5791947 2.4158742 1.3812573
1.5545104 -1.4844396 1.3901923
1.5058655 -1.2486454 1.3920239
1.5021727 -1.233282 1.3911468
1.4501082 -1.0404172 1.3934491
1.4321636 -0.96938127 1.396108
1.4210116 -0.90650547 1.3902661
1.4241024 -0.47224492 1.393809
1.462459 -0.3134917 1.3958927
1.5713403 0.052593924 1.3912262
1.6340407 0.31034204 1.3961387
1.6451715 0.37303582 1.3912545
1.6683578 0.54434377 1.3926647
1.6778921 0.67242903 1.3919221
1.6846008 0.83717275 1.3985318
1.6853513 1.154691 1.3922871
1.6858689 1.1655098 1.3943061
1.6872416 1.2056125 1.397904
1.6944567 1.4088448 1.397892
1.7009211 1.5850525 1.3958571
1.6997638 1.6826967 1.3953068
1.6880921 1.8246644 1.3904245
1.6780748 1.8887025 1.3985119
1.6728901 1.9228932 1.3918531
1.6591599 1.9940934 1.3954587
1.6528779 2.0256288 1.3942729
1.6151699 2.2059684 1.3909403
1.5883179 2.3489864 1.3966017
1.5831733 2.3832583 1.3933072
1.5659678 2.5247321 1.394739
1.5645267 2.53791 1.397747
1.5588278 -1.5238129 1.4004217
1.5515453 -1.4783543 1.4036154
1.5392234 -1.4120805 1.4080361
1.5189178 -1.3122461 1.4028488
1.4960744 -1.2226839 1.4039216
1.4253385 -0.95279288 1.4065739
1.3967981 -0.75321001 1.4086251
1.3989635 -0.63621432 1.403753
1.4007285 -0.62032741 1.4014235
1.4292921 -0.43594214 1.4051894
1.4322877 -0.42108878 1.407232
1.5819777 0.092701033 1.4073529
1.6194539 0.23968281 1.4061362
1.6811973 0.68672848 1.4051048
1.6848603 0.76862967 1.4067085
1.6870306 0.83821052 1.409584
1.6869587 0.97460854 1.4047607
1.6868998 1.091841 1.4032432
1.6958325 1.4270507 1.4071229
1.6967425 1.45564 1.4010158
1.6995158 1.5270247 1.4052235
1.7006204 1.6335109 1.4041396
1.6871798 1.8238374 1.4028074
1.6738631 1.9098643 1.4065882
1.6701548 1.9310879 1.4065112
1.6504804 2.0327213 1.405378
1.6337593 2.1128376 1.4038153
1.5908895 2.328882 1.4096957
1.5792675 2.4051445 1.4082664
1.5780927 2.4140611 1.4077345
1.5465196 -1.4578785 1.4142501
1.5287503 -1.366497 1.414637
1.4766852 -1.1629925 1.4161124
1.4648049 -1.1219976 1.4180301
1.4337045 -0.99425614 1.4100809
1.4034739 -0.84409404 1.4153438
1.416252 -0.48874059 1.4136115
1.4252909 -0.44778273 1.4113957
1.4881653 -0.21307462 1.419181
1.6288229 0.27917182 1.4175119
1.6705459 0.53405339 1.4139459
1.6745524 0.57649338 1.4119204
1.675328 0.58402908 1.4125526
1.6876609 0.8218711 1.4139072
1.6876332 0.87141615 1.41032
1.6897566 1.0143557 1.4176294
1.6899587 1.2038075 1.4142029
1.6965576 1.4272431 1.4192666
1.6625826 1.9689753 1.4129953
1.6505579 2.0271227 1.4185154
1.6375602 2.0909357 1.4148173
1.6294217 2.1307256 1.411037
1.5985594 2.2828698 1.4169172
1.5952777 2.3012936 1.416271
1.5903379 2.3315554 1.4114219
1.5712348 2.4690568 1.4103578
1.5626179 2.5510728 1.4147162
1.5533212 -1.5095612 1.4266087
1.5136309 -1.3104126 1.4253289
1.5044208 -1.2723683 1.4236307
1.5020946 -1.2655146 1.4259496
1.4940423 -1.2336097 1.4240766
1.4849396 -1.2032557 1.4274473
1.4217879 -0.96397251 1.4275467
1.4054234 -0.87117696 1.4224702
1.4010013 -0.85026562 1.4273371
1.3950554 -0.80662471 1.4298998
1.3914031 -0.73007315 1.4252889
1.3921223 -0.70459205 1.4211956
1.3997984 -0.57404643 1.4244288
1.4015701 -0.55446291 1.4284878
1.406536 -0.53219765 1.4218776
1.4311382 -0.41207179 1.4231193
1.4476279 -0.34807014 1.4239656
1.4789851 -0.24024113 1.424703
1.4850447 -0.21883494 1.4282633
1.4934915 -0.19223373 1.4271767
1.5598019 0.018779797 1.4237947
1.6164925 0.22478053 1.4250875
1.6710047 0.52265948 1.4263182
1.6779437 0.58874053 1.4263172
1.6791977 0.6094293 1.4225755
1.6797765 0.6205793 1.4208475
1.6902575 0.89919871 1.4213058
1.6917967 0.98937291 1.4273493
1.6918157 1.0569841 1.4276947
1.6911076 1.090036 1.4242383
1.692487 1.2750164 1.4226755
1.6935117 1.3225365 1.4219015
1.6993026 1.5149605 1.4201617
1.6999807 1.5487359 1.4262269
1.7003131 1.5961195 1.4207718
1.6972063 1.7017488 1.4223436
1.6904074 1.7788545 1.429005
1.6745063 1.8988625 1.4211621
1.5698186 2.4748244 1.4298482
1.5191455 -1.3405275 1.4338732
1.5046265 -1.2855966 1.4383404
1.4916431 -1.2362025 1.437364
1.432901 -1.022342 1.4377711
1.4267738 -0.99703342 1.4374174
1.4109398 -0.91631126 1.431185
1.3910626 -0.62837309 1.4375832
1.3952652 -0.5959174 1.4327335
1.4107349 -0.49036625 1.4372541
1.4144119 -0.47949049 1.4303769
1.4185454 -0.4560878 1.434405
1.4370416 -0.37793726 1.4374266
1.4906363 -0.1957287 1.4398938
1.566558 0.043125998 1.4334038
1.6487446 0.37220663 1.4331053
1.6716249 0.52041811 1.4329938
1.6752651 0.54438192 1.4390533
1.6937917 1.1521384 1.438256
1.6957306 1.3629596 1.4331445
1.699425 1.5036881 1.4397258
1.6996604 1.6130763 1.4398786
1.6877687 1.7995771 1.4334223
1.6771399 1.8768989 1.4325813
1.6381838 2.0818553 1.4316481
1.5904158 2.3232474 1.4354365
1.5677564 2.4931123 1.4324739
1.5410739 -1.4529899 1.4447351
1.5266913 -1.3852192 1.4486759
1.4900404 -1.2390763 1.4480828
1.3896098 -0.78149033 1.4426106
1.3877364 -0.73765361 1.4406996
1.3957745 -0.56989861 1.4444931
1.42467 -0.41740143 1.4493558
1.4401135 -0.36423293 1.4408138
1.5151542 -0.11714283 1.4453162
1.6782078 0.5651505 1.4437739
1.6914793 0.73711437 1.4467289
1.6944597 1.0195589 1.4403995
1.6970916 1.3928524 1.4410014
1.698261 1.4267167 1.4472228
1.6989194 1.4626061 1.4461193
1.6986101 1.646651 1.4450983
1.697507 1.6756392 1.442448
1.6850458 1.8156304 1.4436129
1.6392398 2.0706344 1.4489927
1.6282574 2.1242115 1.446125
1.5526899 -1.5265056 1.4554095
1.5222931 -1.3704014 1.4549829
1.5037783 -1.2923449 1.4509121
1.4249192 -1.0049844 1.4521241
1.4192051 -0.98874146 1.4595282
1.4054357 -0.92139566 1.4562964
1.385353 -0.77123392 1.4574196
1.3843043 -0.7542116 1.4579605
1.3861849 -0.63821292 1.4559678
1.4090248 -0.48572218 1.4503866
1.4400533 -0.35374221 1.4574542
1.4470029 -0.32797259 1.4599167
1.470446 -0.25091845 1.4590045
1.4920052 -0.18468095 1.4557648
1.4958572 -0.17378727 1.453167
1.4996608 -0.16149725 1.4546717
1.5157574 -0.11285873 1.4522787
1.5865277 0.1135987 1.4552153
1.593419 0.13717723 1.4505062
1.6435057 0.33950835 1.4505997
1.6497006 0.3698836 1.4516928
1.6705253 0.49207616 1.4546478
1.6728935 0.51218933 1.4513078
1.694589 0.78660315 1.4532582
1.695639 0.80143422 1.4564296
1.6948602 0.81437999 1.4503132
1.6981879 1.0422028 1.4596192
1.6967541 1.1938783 1.4553728
1.6969708 1.2032495 1.4566591
1.6998068 1.5152061 1.4508665
1.6998369 1.5218018 1.451085
1.6988082 1.6255642 1.4582907
1.6499417 2.0178108 1.4508981
1.6462635 2.0354187 1.4521576
1.5811942 2.37639 1.4540375
1.574048 2.4278576 1.4583127
1.5721545 2.4448664 1.4549381
1.5642383 2.5206025 1.4550637
1.4179839 -0.98807746 1.4639009
1.4072379 -0.93537503 1.4604247
1.3833966 -0.66726804 1.4613588
1.3837636 -0.64142436 1.4666477
1.4613973 -0.27573931 1.4677393
1.5114216 -0.12169581 1.4650452
1.5178747 -0.10300866 1.4622647
1.5413517 -0.030562647 1.4642732
1.5509027 -0.00026936489 1.4671211
1.5587949 0.024657115 1.4675753
1.5733905 0.07055191 1.4619629
1.5836241 0.10514718 1.4668393
1.6188778 0.23157831 1.4667947
1.648735 0.35974744 1.4686859
1.6917572 0.68763703 1.4642131
1.694864 0.7327072 1.4671427
1.696439 0.78023165 1.4645233
1.6975669 0.82519984 1.4633222
1.6995038 1.1207905 1.4695828
1.6990484 1.2108158 1.4699301
1.6983147 1.2254475 1.4654049
1.6986406 1.2593536 1.4677694
1.6978769 1.3019449 1.4608151
1.6999211 1.4568633 1.4691029
1.7000749 1.4992933 1.466077
1.6998909 1.564642 1.4665375
1.6651065 1.9321009 1.4674345
1.6234553 2.1425977 1.4606384
1.6202554 2.1573014 1.4634396
1.5763429 2.4093013 1.4600506
1.5704858 2.4546485 1.4696283
1.561525 2.5450771 1.4689105
1.5135528 -1.345627 1.4715374
1.4649055 -1.1693209 1.4728769
1.4053261 -0.9380827 1.4709848
1.3788872 -0.7048915 1.4787889
1.3825626 -0.64318669 1.4719139
1.384113 -0.62015104 1.4731002
1.3985575 -0.51645768 1.4732996
1.4270362 -0.39217812 1.47227
1.4415203 -0.33668125 1.4778894
1.5261 -0.07499969 1.4718634
1.5656936 0.048446156 1.4774258
1.5729986 0.071093448 1.473649
1.6021886 0.16987585 1.475791
1.6118414 0.20482732 1.4788748
1.6274403 0.26500523 1.4746517
1.6688254 0.4697313 1.4705528
1.6726232 0.49436781 1.4710959
1.6825141 0.57246667 1.4700098
1.6942219 0.69758642 1.4756064
1.699316 0.83410102 1.4716183
1.7013241 0.89536536 1.4767383
1.7008134 1.0308428 1.4731863
1.7000934 1.4400452 1.4737551
1.6781245 1.8496677 1.4737997
1.6619099 1.944644 1.4791915
1.653317 1.9934183 1.4700862
1.6440308 2.0386269 1.4736898
1.6354223 2.0811822 1.4717605
1.6239754 2.1351383 1.4763157
1.6169007 2.1692164 1.478146
1.6021413 2.2461793 1.4727675
1.5739478 2.4232316 1.4759492
1.4380461 -0.34603572 1.4827534
1.4426305 -0.3280476 1.4868579
1.4539936 -0.29293215 1.4817816
1.5037766 -0.13612272 1.4897447
1.5339626 -0.048069164 1.4827032
1.5745764 0.07836996 1.4862511
1.5759457 0.082482316 1.48475
1.5876101 0.12081289 1.4856504
1.6866426 0.59547013 1.4825418
1.7031333 0.87555242 1.4881859
1.7031231 0.89378774 1.48664
1.7033592 0.90920919 1.4870782
1.7011385 1.1627957 1.48107
1.7021044 1.1818355 1.4880391
1.702002 1.2121892 1.4892658
1.700066 1.5522124 1.4843736
1.6537286 1.9859067 1.484798
1.6409096 2.0496204 1.4860215
1.6318274 2.0956559 1.4806635
1.6263173 2.1218755 1.4822909
1.5405792 -1.4815795 1.4922247
1.5296944 -1.4311738 1.4968239
1.4978994 -1.3009275 1.4956713
1.4948533 -1.2912263 1.4980379
1.47816 -1.2323179 1.4982178
1.4572922 -1.1577265 1.4937682
1.4543978 -1.1468825 1.4925061
1.408698 -0.97728318 1.4948839
1.396351 -0.91624051 1.4929972
1.3789177 -0.78758597 1.4937297
1.3771423 -0.75268137 1.4920363
1.3762909 -0.71587056 1.4922688
1.3769878 -0.6760906 1.4919285
1.3885887 -0.55531508 1.4919319
1.3929588 -0.52403414 1.4970149
1.3951658 -0.51504922 1.49362
1.4401995 -0.33247003 1.4942336
1.4575378 -0.27539384 1.4945056
1.5411278 -0.022485157 1.4975483
1.5489446 0.00068207853 1.4960201
1.5570743 0.025227379 1.494976
1.6017412 0.16940783 1.4910461
1.6339933 0.2897813 1.4990648
1.6657788 0.43898338 1.4957985
1.674664 0.49156195 1.497357
1.6928391 0.63805842 1.4982493
1.7009541 1.4737993 1.4908636
1.7000948 1.5558856 1.4960985
1.693632 1.6971571 1.4966707
1.6879281 1.761005 1.4953611
1.6804435 1.8244889 1.4918336
1.676381 1.8522758 1.4928453
1.6053548 2.2230003 1.4947962
1.5292829 -1.4349809 1.5073162
1.3740304 -0.72467762 1.5049871
1.3776791 -0.63533336 1.5008196
1.4107962 -0.43192878 1.5091007
1.5691689 0.064688146 1.5044307
1.6516653 0.36487457 1.5072281
1.673471 0.47870249 1.5078423
1.7009735 0.74661475 1.5009477
1.7022679 0.75070876 1.508116
1.7050545 0.85853606 1.5010476
1.7056512 1.0520965 1.5006261
1.7044063 1.1875488 1.5031146
1.7019312 1.4387213 1.5037153
1.6955187 1.6633673 1.5091034
1.6226285 2.1321263 1.5078989
1.6181686 2.1554337 1.503535
1.6115553 2.1877651 1.5062771
1.5367094 -1.4753733 1.5177675
1.5048095 -1.3397707 1.5188986
1.4910325 -1.2886173 1.5175377
1.4351923 -1.0929096 1.5120521
1.3770854 -0.81740409 1.5192158
1.3756257 -0.79146445 1.5138354
1.3716575 -0.70086849 1.5193491
1.3968158 -0.48607844 1.5193272
1.4340074 -0.34502518 1.5107644
1.5106719 -0.10675234 1.5165788
1.5675707 0.062310677 1.517471
1.5891548 0.13075751 1.5198133
1.6993051 0.69720745 1.5106924
1.7049711 1.2806236 1.5167041
1.6989323 1.5946212 1.5120348
1.6879208 1.7530762 1.5108578
1.670671 1.8812822 1.5100904
1.6644275 1.9172317 1.5127138
1.6576265 1.9530709 1.5176828
1.6501518 1.9937556 1.5139047
1.6206063 2.1399505 1.5152223
1.6107129 2.1894979 1.5159285
1.5998588 2.2455924 1.5199449
1.576052 2.3950918 1.5178382
1.5610112 2.538703 1.5148122
1.4786587 -1.2510505 1.5280485
1.4521486 -1.1581819 1.5227238
1.4200264 -1.0456495 1.5251548
1.4152458 -1.0279232 1.5261885
1.3826159 -0.87239438 1.5285103
1.3750734 -0.8063345 1.5250748
1.3705668 -0.72329736 1.5265214
1.4159563 -0.40022811 1.5288283
1.4286537 -0.35627642 1.5253503
1.4410329 -0.31659263 1.5209385
1.4547629 -0.26988143 1.5269604
1.5724421 0.078066736 1.5209879
1.6774687 0.49350744 1.5296413
1.6897314 0.58001018 1.5266643
1.697227 0.64895624 1.5261801
1.7105877 0.91538578 1.529097
1.7097477 0.96584386 1.5221021
1.7095029 1.0763917 1.5250809
1.689896 1.7243267 1.5291435
1.6754349 1.8429978 1.5279599
1.6708238 1.8729646 1.5279742
1.662028 1.9247625 1.5288465
1.5767115 2.3875432 1.5284421
1.535764 -1.4784956 1.5350991
1.5182505 -1.4003316 1.5341153
1.4486142 -1.1517589 1.5327917
1.4083238 -1.0060071 1.5352396
1.3958378 -0.94807941 1.5310767
1.3922418 -0.93152207 1.5324353
1.3714825 -0.78396344 1.5368685
1.3696035 -0.71928787 1.5327443
1.3775728 -0.58318532 1.5368822
1.3985758 -0.46674722 1.5362904
1.4039782 -0.44146237 1.5396688
1.454883 -0.26679906 1.5335277
1.4710554 -0.21523096 1.5393621
1.5806724 0.10619077 1.5339478
1.6377791 0.30356228 1.5360994
1.6449947 0.33272332 1.5387648
1.7027279 0.70275897 1.53427
1.7044828 0.73340905 1.5311967
1.711751 0.95368785 1.5347524
1.7094074 1.1390704 1.5305698
1.7098778 1.1754708 1.538402
1.7075886 1.2461387 1.532413
1.7007217 1.5507945 1.5393316
1.6958864 1.6452084 1.5388757
1.6486794 1.9942462 1.5347542
1.6336339 2.0696428 1.535955
1.604338 2.2169425 1.5382551
1.5823072 2.3468323 1.5339353
1.5680088 2.4587631 1.5367072
1.533549 -1.4727993 1.5470785
1.5076427 -1.3634368 1.5456952
1.4005922 -0.98207533 1.5493419
1.3902587 -0.92838365 1.5420433
1.4977622 -0.13411456 1.5475403
1.5078063 -0.10455897 1.5495678
1.5296104 -0.041849792 1.5499645
1.5507029 0.017265124 1.5417428
1.6686451 0.43960419 1.5475187
1.7122868 0.86503208 1.5463995
1.7122428 0.87829888 1.5439053
1.7128699 0.90903693 1.5445279
1.7131138 0.95442808 1.5432984
1.7124486 1.0788864 1.5440438
1.7122555 1.1074272 1.5456433
1.7062283 1.3759334 1.5464553
1.6981109 1.6074619 1.5403852
1.6966705 1.6315967 1.5448636
1.6943698 1.665626 1.5432395
1.6889067 1.7267919 1.546062
1.6846529 1.7644986 1.5493076
1.634123 2.063241 1.5496932
1.6300513 2.0841405 1.5469857
1.6284366 2.0933769 1.5426093
1.6250433 2.1094429 1.5456272
1.6200098 2.1336536 1.548866
1.6169448 2.1497648 1.546306
1.6042079 2.2168009 1.5415437
1.5594335 2.5502775 1.5492035
1.4900416 -1.3026416 1.5540017
1.4824367 -1.2759446 1.5534343
1.4543755 -1.1836065 1.5583547
1.4482993 -1.1599468 1.5512599
1.4214574 -1.0673276 1.5538838
1.3722556 -0.82050741 1.5554324
1.3667061 -0.72311431 1.5550818
1.3830234 -0.53111833 1.5561494
1.3866605 -0.51124215 1.5562562
1.3901479 -0.49584079 1.5525849
1.3908876 -0.48857388 1.5587598
1.4545896 -0.26065314 1.5511732
1.4620312 -0.23478454 1.559468
1.5523154 0.025412319 1.555052
1.6069239 0.19446902 1.5571252
1.6166587 0.22667423 1.5505389
1.6634673 0.41348088 1.5502505
1.6799752 0.49919885 1.5561112
1.7124597 1.1318786 1.5500971
1.7085536 1.3297257 1.5581622
1.7030903 1.4960015 1.5523429
1.7002519 1.5651453 1.5515653
1.680724 1.7950389 1.5521225
1.6337876 2.0628631 1.5567889
1.5691791 2.4441822 1.5522243
1.5628349 2.5089076 1.5555322
1.5598155 2.5453656 1.5509764
1.5592072 2.5519145 1.5555941
1.5177597 -1.4103398 1.5636311
1.5165797 -1.4059759 1.5649605
1.4389931 -1.1334947 1.5627321
1.3925856 -0.95616728 1.5678394
1.3881106 -0.93453175 1.5682206
1.3819114 -0.90076798 1.5679989
1.4071529 -0.41390541 1.568563
1.4176084 -0.37526318 1.5680475
1.455214 -0.25198659 1.5685736
1.4585491 -0.24150193 1.5696561
1.4755474 -0.19192295 1.5669281
1.5389905 -0.011051557 1.5632036
1.5842861 0.12353901 1.5646646
1.682043 0.50806445 1.5687556
1.7075199 0.72170502 1.5642036
1.7128054 0.81767082 1.5620573
1.7081897 1.3692102 1.5669112
1.6968836 1.6243684 1.5636209
1.6913853 1.6925108 1.5692288
1.6758355 1.8259615 1.5635518
1.5818052 2.3439739 1.5632657
1.539848 -1.5116444 1.577147
1.485791 -1.2947742 1.5715649
1.483037 -1.2851262 1.5711284
1.428272 -1.101306 1.5747615
1.3894647 -0.94667864 1.5781353
1.3657581 -0.75879252 1.5725805
1.3657513 -0.67332488 1.5706409
1.365925 -0.65571427 1.5771182
1.3700434 -0.60439456 1.5785109
1.3763266 -0.56186908 1.5708034
1.3823413 -0.52249908 1.5752717
1.3962046 -0.45411572 1.5781235
1.4301217 -0.33012292 1.5726919
1.458708 -0.24027529 1.571665
1.5888351 0.14026143 1.577289
1.6039963 0.18751428 1.573433
1.6663816 0.42483166 1.575271
1.6739169 0.46269506 1.5705096
1.7073292 1.414011 1.5757927
1.7067292 1.4297307 1.5761094
1.7035083 1.5072206 1.5771294
1.6890477 1.7138741 1.5773423
1.6678771 1.8750105 1.5711687
1.6315978 2.0675857 1.5795106
1.5793515 2.3584526 1.576667
1.5722163 2.4134641 1.57341
1.5329876 -1.4833194 1.5895525
1.5223397 -1.4371593 1.5881108
1.4713786 -1.2499434 1.5831559
1.4630066 -1.2214617 1.5814741
1.3827405 -0.91408962 1.5828152
1.3634851 -0.73454577 1.5886278
1.3654306 -0.65036029 1.5860264
1.3728373 -0.57827663 1.5821621
1.4023471 -0.42511785 1.5855064
1.5086722 -0.091268204 1.5835876
1.5225495 -0.051028479 1.5868676
1.5515304 0.031729933 1.5874492
1.5585483 0.052199543 1.5879955
1.584815 0.13026898 1.5881
1.608621 0.20490378 1.586087
1.6889223 0.54498804 1.5877047
1.6991203 0.61885619 1.5845171
1.7182307 0.9235118 1.5820572
1.7191116 0.93359047 1.5880367
1.7185438 0.97310275 1.5811639
1.7193781 1.0037938 1.5876759
1.7183111 1.0984353 1.5877385
1.7162453 1.1786265 1.5863899
1.7141142 1.2327075 1.5819923
1.7096604 1.3708112 1.5852226
1.6808262 1.7821434 1.5840873
1.6696199 1.8577552 1.5895661
1.6653291 1.8862723 1.5836309
1.5864413 2.309876 1.5834272
1.5755944 2.3843007 1.586288
1.5746109 2.3928835 1.5800874
1.5718646 2.4140234 1.5871913
1.5695617 2.4341238 1.5881646
1.5648028 2.4814014 1.5885277
1.5595361 2.5435193 1.5874209
1.5582476 2.5598898 1.5866325
1.529682 -1.4701276 1.5952996
1.446528 -1.1713905 1.5963364
1.3819335 -0.91620654 1.5963724
1.5012083 -0.1100845 1.5911289
1.5100511 -0.082269341 1.5999177
1.5339295 -0.016811378 1.5935035
1.6203701 0.24491765 1.5906049
1.6383098 0.30878448 1.5900303
1.6404592 0.31702951 1.5924749
1.6532894 0.36733845 1.5917429
1.6696141 0.4393203 1.5978527
1.6706804 0.4445805 1.593506
1.6794426 0.48872784 1.5953511
1.7155036 0.79321426 1.5976517
1.7179165 1.149439 1.5936049
1.7117257 1.331158 1.5915048
1.6962802 1.6285996 1.5978837
1.6852639 1.7438064 1.5908985
1.6704099 1.8501649 1.5975411
1.6393447 2.0236409 1.597568
1.6074326 2.1881526 1.5924575
1.5907345 2.2811701 1.5957321
1.580182 2.3493178 1.5949723
1.568634 2.441102 1.5970892
1.5035963 -1.3690449 1.6083317
1.4714763 -1.2563266 1.6026828
1.4689654 -1.2484 1.604314
1.3656144 -0.80205512 1.6098441
1.4154501 -0.36881569 1.6027064
1.4435778 -0.27484614 1.6044009
1.5101573 -0.080982886 1.6031044
1.6073536 0.2053481 1.6085383
1.6505674 0.35783592 1.607903
1.6846411 0.51642054 1.6042691
1.7168077 0.80340934 1.6056846
1.717059 0.81592309 1.6010815
1.7183089 0.82729584 1.6087048
1.7194934 0.88275713 1.600108
1.7209749 0.96655822 1.6009463
1.7215538 1.06687 1.6096206
1.7200892 1.0962785 1.6014096
1.7201657 1.1194437 1.6060305
